900,0.7982,0.7878,0.8038,0.8054,0.8051,0.7960,0.8031,0.7673,0.7985,0.8049,0.7991,0.8060,0.8015,0.8029,0.8063,0.7990,0.7912,0.8013,0.8053,0.8035,0.7964,0.7877,0.8001,0.8016,0.7001,0.8039,0.7755,0.8050,0.7880,0.8008,0.8051,0.7323,0.7997,0.8049,0.7848,0.8051,0.8000,0.7928,0.7973,0.8060,0.8044,0.7915,0.8061,0.8000,0.7840,0.7878,0.8052,0.7842,0.7852,0.7965,0.8054,0.7722,0.8008,0.8052,0.7911,0.8016,0.8059,0.7840,0.7500,0.8037,0.7623,0.7591,0.7916,0.7670,0.8046,0.7845,0.8051,0.8054,0.8057,0.7906,0.7842,0.7982,0.8052,0.7851,0.7949,0.8016,0.8050,0.8025,0.7951,0.8052,0.8009,0.8047,0.8045,0.7842,0.7878,0.7736,0.7840,0.8060,0.7995,0.8043,0.7990,0.8009,0.8041,0.7393,0.8044,0.8047,0.7999,0.7996,0.7839,0.7913
650,0.8012,0.7971,0.8002,0.8067,0.8051,0.7999,0.8013,0.7960,0.8013,0.7996,0.8013,0.8010,0.8003,0.8028,0.8009,0.8045,0.8041,0.7998,0.8055,0.8038,0.8005,0.7876,0.8012,0.8054,0.8044,0.7559,0.7725,0.8013,0.7960,0.8033,0.8039,0.8030,0.8039,0.8047,0.7993,0.8064,0.8005,0.7469,0.8005,0.7973,0.8049,0.7984,0.8066,0.8008,0.7993,0.7881,0.8051,0.7999,0.8026,0.8007,0.8047,0.7998,0.7985,0.8012,0.7952,0.8018,0.8068,0.7997,0.7534,0.8047,0.7889,0.7610,0.7990,0.8000,0.7935,0.7843,0.8009,0.8024,0.8029,0.8029,0.8000,0.8009,0.8051,0.8047,0.7990,0.8029,0.8048,0.8016,0.8004,0.8040,0.8029,0.8041,0.7569,0.8010,0.7961,0.7688,0.7836,0.8046,0.8008,0.8047,0.7916,0.8010,0.8043,0.8046,0.7948,0.8039,0.7822,0.8045,0.8030,0.7997
400,0.7962,0.7843,0.8003,0.7990,0.7936,0.7957,0.8033,0.7996,0.8004,0.7829,0.8006,0.7998,0.8030,0.8059,0.7988,0.8046,0.7878,0.7982,0.7802,0.7841,0.7989,0.7847,0.8005,0.8045,0.8052,0.7560,0.8002,0.8021,0.7847,0.7754,0.7997,0.7568,0.8059,0.8031,0.7879,0.7669,0.7847,0.7938,0.7998,0.7972,0.7528,0.7872,0.8046,0.8011,0.7843,0.7852,0.7481,0.7911,0.8031,0.7996,0.8045,0.7904,0.7873,0.7914,0.7893,0.8022,0.8033,0.7492,0.7816,0.7826,0.7825,0.7610,0.7879,0.7912,0.7724,0.8030,0.7961,0.7782,0.7995,0.7890,0.7883,0.8000,0.8065,0.8057,0.7932,0.8029,0.8029,0.8016,0.7944,0.8048,0.7713,0.7863,0.7430,0.7999,0.7827,0.7633,0.7825,0.7991,0.7850,0.8039,0.7903,0.7958,0.8050,0.8069,0.7843,0.7865,0.7669,0.8030,0.8005,0.7889
20,0.7754,0.7667,0.7996,0.8039,0.7988,0.7995,0.7960,0.7414,0.7989,0.8007,0.7757,0.8004,0.7981,0.8028,0.8006,0.8016,0.7973,0.7966,0.7414,0.7721,0.8028,0.8047,0.7654,0.7414,0.8007,0.6622,0.7986,0.7798,0.7867,0.7414,0.7998,0.7332,0.7859,0.7993,0.8007,0.7610,0.8023,0.7815,0.7702,0.7814,0.7820,0.8047,0.7781,0.7841,0.7952,0.7843,0.7568,0.8048,0.7855,0.8051,0.7847,0.8050,0.7917,0.8050,0.8031,0.8047,0.8047,0.7414,0.7882,0.8068,0.7840,0.8067,0.8039,0.7998,0.8030,0.7414,0.8047,0.8031,0.7485,0.8038,0.7735,0.7957,0.7971,0.7951,0.7414,0.8051,0.7808,0.8053,0.8031,0.8044,0.8032,0.8012,0.7414,0.8012,0.7414,0.7989,0.7414,0.8028,0.8003,0.8041,0.7903,0.8035,0.8041,0.7896,0.7832,0.8048,0.7414,0.7335,0.7879,0.8037
150,0.7988,0.7845,0.8001,0.8006,0.8041,0.8000,0.7873,0.7832,0.8008,0.7905,0.8052,0.7985,0.8028,0.8055,0.7994,0.8013,0.8005,0.7992,0.7844,0.7893,0.8022,0.7940,0.8028,0.7999,0.8024,0.6891,0.8005,0.7983,0.7848,0.8002,0.8053,0.7138,0.7939,0.8018,0.7912,0.7654,0.8048,0.7393,0.7997,0.7923,0.7934,0.7883,0.7948,0.7999,0.7893,0.7850,0.7666,0.7966,0.8049,0.7999,0.8045,0.7955,0.7888,0.7878,0.8028,0.8008,0.7830,0.7488,0.8052,0.7948,0.7548,0.7624,0.7993,0.7993,0.7699,0.8005,0.8000,0.7932,0.7878,0.8042,0.7781,0.8010,0.8038,0.7835,0.7864,0.7975,0.7820,0.7987,0.8039,0.8047,0.7633,0.7878,0.7494,0.8008,0.7807,0.7439,0.7867,0.7999,0.7880,0.7446,0.7960,0.7959,0.8024,0.7859,0.7832,0.7872,0.7998,0.8049,0.8005,0.8009
30,0.7768,0.7872,0.7991,0.8050,0.7971,0.8049,0.7879,0.7555,0.7995,0.8005,0.7772,0.8041,0.7877,0.8067,0.7995,0.8028,0.7907,0.7940,0.7585,0.8006,0.8046,0.8005,0.7669,0.7943,0.7995,0.6856,0.8009,0.7795,0.7971,0.7795,0.8005,0.7013,0.7842,0.8049,0.8005,0.7624,0.8020,0.7768,0.8017,0.7805,0.7919,0.7982,0.7774,0.7842,0.7891,0.7846,0.7574,0.7775,0.7862,0.8039,0.7818,0.8050,0.7888,0.8053,0.8039,0.8016,0.8047,0.7414,0.8044,0.8056,0.8046,0.8065,0.8039,0.7998,0.8051,0.7507,0.8047,0.8025,0.7504,0.8012,0.8015,0.7938,0.7983,0.7948,0.7966,0.8037,0.7809,0.8046,0.8030,0.8036,0.8028,0.8029,0.7414,0.8014,0.7414,0.8002,0.7494,0.8028,0.7876,0.7407,0.7942,0.8004,0.8027,0.7898,0.7832,0.8059,0.7523,0.7370,0.7843,0.8048
800,0.7988,0.7930,0.7997,0.8054,0.8065,0.7989,0.8030,0.7523,0.7992,0.7936,0.7999,0.8069,0.8005,0.8029,0.7983,0.8013,0.7965,0.8000,0.8053,0.8044,0.7981,0.7911,0.8029,0.8048,0.8027,0.7715,0.7755,0.8034,0.7976,0.8032,0.8052,0.7022,0.7992,0.8052,0.7943,0.8046,0.7959,0.7924,0.7988,0.8010,0.8051,0.7923,0.8064,0.8000,0.8050,0.7878,0.8051,0.7624,0.7942,0.7987,0.8054,0.7553,0.8030,0.8052,0.8008,0.8029,0.8045,0.8005,0.8061,0.8009,0.7878,0.7610,0.7917,0.7500,0.8052,0.7844,0.8028,0.8050,0.8028,0.7999,0.7772,0.7989,0.8050,0.8050,0.7954,0.8026,0.8054,0.8012,0.7982,0.7961,0.8008,0.8048,0.7403,0.7998,0.7966,0.7729,0.7838,0.8066,0.8004,0.8043,0.7983,0.8006,0.8049,0.8026,0.8019,0.8045,0.7996,0.8010,0.7915,0.8006
550,0.7989,0.7883,0.7995,0.8023,0.8050,0.7987,0.8035,0.7841,0.7999,0.7988,0.8011,0.7992,0.8027,0.8031,0.8009,0.8050,0.8045,0.8015,0.8006,0.8029,0.7993,0.7851,0.8011,0.8053,0.8068,0.7639,0.7649,0.8014,0.7911,0.8036,0.8047,0.7204,0.7995,0.8027,0.7928,0.7675,0.8043,0.7498,0.8000,0.7977,0.8037,0.7913,0.8046,0.8007,0.8037,0.7841,0.7485,0.7949,0.8012,0.7996,0.8045,0.8038,0.7908,0.8045,0.7931,0.8029,0.7896,0.7992,0.7530,0.7913,0.7624,0.7611,0.7966,0.7948,0.7797,0.8049,0.7986,0.8028,0.7994,0.7986,0.7906,0.7998,0.8051,0.8058,0.7951,0.8030,0.8045,0.8012,0.7973,0.8045,0.8043,0.8041,0.7403,0.8008,0.7905,0.7686,0.7821,0.8007,0.8009,0.8052,0.7914,0.8006,0.8045,0.8059,0.7872,0.7989,0.7820,0.8023,0.8005,0.7990
40,0.7768,0.7842,0.8004,0.8050,0.7972,0.8043,0.7850,0.7517,0.7994,0.8016,0.7774,0.8029,0.7867,0.8051,0.7995,0.8030,0.7913,0.7932,0.7517,0.8008,0.8052,0.8007,0.7611,0.7967,0.7998,0.8059,0.7989,0.7814,0.7906,0.7943,0.7996,0.7013,0.7848,0.8051,0.7997,0.7643,0.7998,0.7774,0.8008,0.7800,0.7924,0.7958,0.7771,0.7842,0.7890,0.7848,0.7657,0.7825,0.7960,0.8027,0.7819,0.8045,0.7975,0.8068,0.8044,0.8014,0.8048,0.7414,0.8047,0.7961,0.8038,0.8067,0.8042,0.7999,0.8047,0.7485,0.8051,0.8028,0.7514,0.8012,0.8004,0.7983,0.7937,0.7842,0.7747,0.8047,0.7807,0.8049,0.8024,0.8039,0.8030,0.7980,0.7414,0.8015,0.7776,0.8008,0.7545,0.8031,0.8048,0.7401,0.7923,0.8011,0.8030,0.7898,0.7832,0.8058,0.7517,0.8068,0.8007,0.8061
300,0.7948,0.7827,0.8002,0.8065,0.7807,0.7947,0.7837,0.7660,0.8011,0.7860,0.8005,0.7892,0.8029,0.8057,0.8009,0.8053,0.8040,0.7995,0.7825,0.7847,0.7914,0.7837,0.8008,0.7982,0.8057,0.7383,0.7992,0.7893,0.7825,0.7988,0.7992,0.7289,0.7950,0.8032,0.7845,0.7500,0.7836,0.7398,0.7899,0.7958,0.7699,0.7842,0.8053,0.8008,0.7894,0.7873,0.7378,0.7877,0.8029,0.7948,0.8038,0.8052,0.7844,0.7839,0.7904,0.8028,0.8019,0.7487,0.8069,0.7828,0.7528,0.7637,0.7832,0.7880,0.7776,0.8029,0.7954,0.7565,0.8023,0.8016,0.7774,0.7964,0.8054,0.7826,0.7833,0.8029,0.8035,0.8031,0.7913,0.8040,0.8050,0.7850,0.7403,0.7963,0.7774,0.7546,0.7837,0.7997,0.7841,0.7900,0.7931,0.7959,0.8037,0.8020,0.7823,0.7821,0.7957,0.8012,0.7984,0.7988
50,0.7769,0.7826,0.8030,0.8050,0.7994,0.8048,0.7854,0.7544,0.7995,0.8012,0.7738,0.8032,0.7860,0.8050,0.7996,0.8030,0.7990,0.7940,0.7571,0.8002,0.8047,0.7998,0.7690,0.7983,0.7998,0.6979,0.7991,0.7795,0.7876,0.8012,0.8003,0.7195,0.7852,0.8051,0.7947,0.7624,0.8008,0.7806,0.8002,0.7794,0.7916,0.8042,0.7915,0.7842,0.7891,0.7844,0.7668,0.7826,0.7978,0.8028,0.7901,0.7997,0.7884,0.8065,0.8048,0.8014,0.7915,0.7414,0.8041,0.8056,0.8045,0.8071,0.8046,0.8001,0.8052,0.7509,0.8009,0.8031,0.7506,0.8013,0.8002,0.7938,0.8049,0.7841,0.7972,0.8041,0.7809,0.8049,0.8026,0.8038,0.8025,0.7981,0.7414,0.8015,0.7785,0.8008,0.7497,0.8008,0.7886,0.7446,0.7925,0.8020,0.8035,0.7860,0.7832,0.8044,0.7529,0.7370,0.8012,0.8069
700,0.8008,0.7975,0.7961,0.8046,0.8052,0.7999,0.8013,0.7465,0.8004,0.7997,0.8018,0.8055,0.8009,0.8028,0.8008,0.8016,0.8045,0.7468,0.8046,0.8044,0.8008,0.7877,0.8031,0.8046,0.8045,0.7619,0.7680,0.8030,0.7983,0.8033,0.8046,0.8019,0.7992,0.8031,0.7989,0.8042,0.8047,0.7923,0.8004,0.7971,0.8058,0.7959,0.8061,0.7997,0.7999,0.7882,0.8054,0.7990,0.8037,0.8010,0.8056,0.7973,0.7987,0.8050,0.7981,0.8018,0.8052,0.8006,0.7541,0.7962,0.7879,0.7612,0.7989,0.8002,0.8047,0.7843,0.8000,0.8030,0.8030,0.7999,0.8005,0.7973,0.8051,0.8051,0.7996,0.8027,0.8045,0.8012,0.8007,0.8040,0.8021,0.8048,0.7676,0.8008,0.7961,0.7688,0.7838,0.8046,0.8003,0.8042,0.7923,0.8006,0.8048,0.8050,0.7962,0.8032,0.7996,0.8037,0.8019,0.8012
450,0.7990,0.7878,0.7991,0.7998,0.8067,0.8021,0.8037,0.7841,0.7988,0.7996,0.8010,0.7975,0.8030,0.8058,0.8014,0.8005,0.8040,0.7845,0.7931,0.7846,0.7981,0.8000,0.8009,0.8048,0.8054,0.7559,0.7500,0.8030,0.7932,0.7782,0.8045,0.7194,0.7995,0.8024,0.7927,0.7504,0.8048,0.7952,0.7986,0.8043,0.7698,0.7915,0.8049,0.8005,0.8004,0.7871,0.7495,0.7966,0.8037,0.7985,0.8047,0.7960,0.7954,0.7989,0.7849,0.8031,0.8032,0.7960,0.7919,0.7851,0.7826,0.7601,0.7986,0.7957,0.7782,0.8028,0.7991,0.7576,0.7995,0.8031,0.7767,0.7990,0.8052,0.8049,0.7899,0.8028,0.8029,0.8014,0.8042,0.8041,0.7724,0.8047,0.7403,0.7987,0.7916,0.7680,0.7684,0.7981,0.7914,0.8048,0.7872,0.8018,0.8052,0.8048,0.7911,0.8007,0.7695,0.8016,0.7998,0.7876
70,0.7758,0.7825,0.8002,0.8059,0.8067,0.7995,0.7940,0.7826,0.7995,0.8013,0.8050,0.8005,0.7841,0.8053,0.7996,0.8029,0.7993,0.7979,0.7833,0.8007,0.8022,0.7912,0.7840,0.7982,0.8006,0.6881,0.7894,0.7795,0.7842,0.7993,0.8003,0.7184,0.7940,0.8054,0.7872,0.7624,0.7997,0.7429,0.8005,0.7925,0.7916,0.7941,0.7920,0.7840,0.7960,0.7844,0.7682,0.7836,0.7993,0.8031,0.8043,0.8065,0.7850,0.8068,0.8048,0.8028,0.7914,0.8038,0.8048,0.7959,0.8068,0.8064,0.8049,0.7994,0.8059,0.8008,0.8052,0.7971,0.7874,0.7921,0.8007,0.8013,0.8045,0.7841,0.7880,0.7991,0.7944,0.8009,0.8046,0.8040,0.8015,0.7940,0.7414,0.8008,0.7780,0.8019,0.7842,0.8002,0.8045,0.7446,0.7960,0.7913,0.8036,0.7860,0.7836,0.8058,0.7509,0.8054,0.8018,0.8048
200,0.7966,0.7843,0.8003,0.8010,0.8040,0.7983,0.7844,0.7823,0.7988,0.7982,0.8043,0.7954,0.8028,0.8067,0.7994,0.8054,0.8010,0.7849,0.7826,0.7879,0.7957,0.7913,0.8030,0.7972,0.8040,0.7386,0.8001,0.7928,0.7851,0.8002,0.8052,0.7022,0.7944,0.8018,0.7872,0.7723,0.8046,0.7415,0.7961,0.7931,0.7945,0.7850,0.7953,0.8007,0.7893,0.7878,0.7390,0.7916,0.8052,0.7981,0.8047,0.7904,0.7851,0.7847,0.7947,0.8012,0.7828,0.7490,0.8070,0.7888,0.7548,0.7621,0.7846,0.7992,0.7714,0.7802,0.7982,0.7575,0.7857,0.8041,0.7781,0.7990,0.8043,0.7835,0.7841,0.8041,0.8037,0.8008,0.7957,0.8037,0.7776,0.7881,0.7403,0.7991,0.7816,0.7389,0.7843,0.8014,0.7884,0.7446,0.7947,0.7959,0.8047,0.7859,0.7833,0.7826,0.7986,0.7813,0.7998,0.8010
80,0.7987,0.7836,0.8007,0.8009,0.8027,0.8030,0.7864,0.7823,0.7994,0.8012,0.8041,0.7999,0.7847,0.8054,0.8019,0.8039,0.8003,0.7951,0.7825,0.8013,0.8027,0.7933,0.7960,0.7999,0.8003,0.6884,0.8006,0.7795,0.7842,0.8007,0.7995,0.7134,0.7864,0.8044,0.7916,0.7625,0.8051,0.7807,0.7998,0.7923,0.7935,0.7915,0.7960,0.7839,0.7961,0.7844,0.7666,0.8007,0.7995,0.8008,0.8047,0.7964,0.7905,0.7952,0.8048,0.8018,0.7795,0.8039,0.8051,0.7948,0.8068,0.8066,0.7998,0.7996,0.8060,0.7751,0.8009,0.7972,0.7889,0.8045,0.7999,0.8007,0.8024,0.7840,0.7869,0.7984,0.7919,0.8008,0.8046,0.8038,0.8014,0.8035,0.7414,0.8005,0.7765,0.8017,0.7845,0.8005,0.8049,0.7446,0.7959,0.7936,0.8039,0.7860,0.7838,0.8066,0.7999,0.8051,0.8011,0.8046
850,0.7943,0.7914,0.8014,0.8054,0.8057,0.7915,0.8030,0.7514,0.7952,0.8023,0.7963,0.8056,0.8015,0.8028,0.7934,0.8012,0.7940,0.8016,0.8050,0.8041,0.7915,0.7914,0.8009,0.7893,0.8016,0.7667,0.7755,0.8046,0.7928,0.8001,0.8051,0.7035,0.7993,0.8049,0.7912,0.8052,0.7920,0.7927,0.7930,0.8054,0.8050,0.7878,0.8060,0.8000,0.7904,0.7883,0.8051,0.7577,0.7916,0.7917,0.8055,0.7721,0.7981,0.8052,0.7960,0.8017,0.8046,0.7496,0.8061,0.8004,0.7639,0.7611,0.7878,0.7668,0.8047,0.7845,0.8051,0.8052,0.8059,0.7940,0.8044,0.7934,0.8052,0.7914,0.7911,0.8028,0.8051,0.8012,0.7918,0.7892,0.8008,0.8047,0.8006,0.7940,0.7877,0.7899,0.7837,0.8056,0.8002,0.8045,0.7996,0.8006,0.8043,0.8030,0.7535,0.8047,0.8000,0.7839,0.7850,0.7939
600,0.8001,0.7914,0.7995,0.8068,0.8066,0.7996,0.8013,0.7918,0.8005,0.7992,0.8010,0.8000,0.8029,0.8028,0.8002,0.8053,0.8045,0.7896,0.8009,0.8027,0.7999,0.7857,0.8009,0.8057,0.8047,0.7637,0.7725,0.8030,0.7944,0.8036,0.8039,0.8010,0.8040,0.8024,0.7986,0.7787,0.8043,0.8003,0.8007,0.7950,0.7751,0.7948,0.8066,0.8009,0.8003,0.7881,0.7487,0.7979,0.8028,0.8008,0.8046,0.7999,0.7977,0.8047,0.7940,0.8019,0.8048,0.7992,0.8044,0.7912,0.7872,0.7610,0.7998,0.7972,0.7775,0.8048,0.7999,0.8016,0.8028,0.8013,0.7767,0.8010,0.8052,0.8046,0.7972,0.8028,0.8051,0.8013,0.7991,0.8040,0.8027,0.8045,0.7675,0.8006,0.7932,0.7688,0.7842,0.8069,0.8009,0.8047,0.7912,0.8009,0.8043,0.8058,0.7917,0.7994,0.7823,0.8036,0.8015,0.7994
90,0.7991,0.7820,0.8004,0.8011,0.8039,0.8000,0.7852,0.7825,0.7994,0.8016,0.8051,0.7999,0.7843,0.8054,0.8029,0.8047,0.8020,0.7925,0.7837,0.8002,0.8041,0.8000,0.7954,0.7993,0.8003,0.6888,0.8005,0.7986,0.7844,0.8008,0.7992,0.7200,0.7845,0.8042,0.7906,0.7614,0.8009,0.7477,0.7999,0.7923,0.7945,0.7931,0.8008,0.7838,0.7963,0.7844,0.7676,0.7973,0.7924,0.8009,0.8027,0.7952,0.7881,0.7943,0.8052,0.8009,0.7843,0.8039,0.8051,0.7955,0.8058,0.8064,0.7996,0.7992,0.8046,0.7754,0.7999,0.7973,0.7909,0.7851,0.8000,0.8008,0.7996,0.7840,0.7859,0.7996,0.7942,0.7999,0.8065,0.8047,0.8031,0.7915,0.7414,0.8006,0.7546,0.7490,0.7582,0.8029,0.8049,0.7446,0.7961,0.7936,0.8036,0.7844,0.7836,0.8050,0.7992,0.8052,0.8015,0.8031
350,0.7949,0.7843,0.8010,0.7998,0.8047,0.7948,0.8037,0.7984,0.7989,0.7711,0.8005,0.7960,0.8028,0.8050,0.8000,0.8050,0.7888,0.7996,0.7702,0.7870,0.7982,0.7832,0.8009,0.8059,0.8057,0.7324,0.7944,0.7949,0.7827,0.7751,0.7957,0.7999,0.7958,0.8041,0.7863,0.7460,0.7846,0.7938,0.7984,0.7958,0.7395,0.7846,0.8049,0.8005,0.8046,0.7859,0.7486,0.7889,0.8030,0.7984,0.8068,0.7879,0.7847,0.7882,0.7843,0.8021,0.8019,0.7558,0.8069,0.8066,0.7547,0.7606,0.7844,0.7892,0.7729,0.8028,0.7954,0.7782,0.8024,0.8015,0.7782,0.7995,0.8062,0.8043,0.7877,0.8047,0.8028,0.8011,0.7914,0.7863,0.7728,0.7859,0.7403,0.7998,0.7821,0.7518,0.7834,0.8014,0.7871,0.7973,0.7883,0.7961,0.8053,0.8047,0.7830,0.7838,0.7655,0.8012,0.8012,0.7998
100,0.7988,0.7840,0.8003,0.8005,0.7807,0.8006,0.7867,0.7826,0.8005,0.8014,0.8047,0.7999,0.7840,0.8054,0.7994,0.8021,0.8003,0.7990,0.7840,0.7914,0.8024,0.7998,0.7960,0.8000,0.7999,0.6891,0.7960,0.7986,0.7844,0.8019,0.8050,0.7223,0.7855,0.8047,0.7911,0.7646,0.8000,0.7462,0.8000,0.7922,0.7948,0.7889,0.7942,0.7838,0.7964,0.7793,0.7587,0.7984,0.8046,0.8008,0.8048,0.7960,0.7890,0.7957,0.8050,0.8012,0.7825,0.8037,0.8049,0.7955,0.8050,0.8065,0.7990,0.7991,0.8050,0.8005,0.8012,0.7973,0.7909,0.8053,0.7999,0.8005,0.7995,0.7841,0.7878,0.7984,0.7944,0.8006,0.8027,0.8045,0.8028,0.7903,0.7414,0.8001,0.7793,0.7488,0.7849,0.8029,0.8049,0.7894,0.7960,0.8033,0.8038,0.7844,0.7830,0.7847,0.8000,0.8053,0.8016,0.8032
60,0.7722,0.7828,0.8003,0.8008,0.7994,0.8045,0.7863,0.7754,0.7993,0.8001,0.8046,0.7982,0.7846,0.8053,0.7996,0.8030,0.8009,0.7993,0.7664,0.7986,0.8028,0.8001,0.7611,0.7559,0.8022,0.6873,0.8010,0.7757,0.7852,0.7992,0.7995,0.7140,0.7900,0.8001,0.7984,0.7639,0.8046,0.7828,0.7987,0.7898,0.7859,0.7882,0.7922,0.7840,0.7916,0.7844,0.7666,0.7826,0.7988,0.8001,0.8041,0.8046,0.7892,0.8000,0.8046,0.8013,0.7843,0.7414,0.8068,0.8050,0.8068,0.8068,0.8046,0.8000,0.8058,0.7521,0.8050,0.8032,0.7513,0.8046,0.7989,0.7946,0.8049,0.7841,0.7839,0.7948,0.7876,0.8023,0.8022,0.8038,0.8017,0.7982,0.7414,0.7998,0.7797,0.8011,0.7822,0.8006,0.7872,0.7892,0.7959,0.8024,0.8034,0.8003,0.7832,0.8058,0.7504,0.8040,0.7998,0.8056
750,0.8007,0.7982,0.7998,0.8068,0.8051,0.8009,0.8031,0.7412,0.8007,0.7937,0.8012,0.8046,0.8009,0.8030,0.8014,0.8013,0.8041,0.8012,0.8050,0.8046,0.8012,0.7912,0.8031,0.8050,0.8044,0.7619,0.7680,0.8026,0.7979,0.8035,0.8053,0.7190,0.7991,0.8050,0.7994,0.8039,0.8048,0.7469,0.8005,0.7974,0.8049,0.7981,0.8057,0.7999,0.8000,0.7880,0.8052,0.7994,0.8036,0.8009,0.8055,0.7964,0.7985,0.8049,0.7984,0.8009,0.8048,0.7500,0.8056,0.8005,0.7646,0.7614,0.7997,0.7574,0.8050,0.7843,0.8028,0.8029,0.8016,0.8028,0.8011,0.7974,0.8052,0.8051,0.7996,0.8031,0.8051,0.8010,0.8042,0.8041,0.8005,0.8047,0.7570,0.8004,0.7981,0.7651,0.7838,0.8067,0.8004,0.8043,0.7928,0.8007,0.8048,0.8046,0.8015,0.8029,0.8000,0.8043,0.7917,0.7999
500,0.7985,0.7878,0.8004,0.7990,0.8067,0.7985,0.8039,0.7842,0.7989,0.7987,0.8006,0.7980,0.8029,0.8029,0.8010,0.8017,0.8047,0.7996,0.7843,0.7878,0.7979,0.7916,0.8016,0.8044,0.8046,0.7559,0.7684,0.8014,0.7869,0.8048,0.8047,0.7208,0.8045,0.8027,0.7913,0.7667,0.7992,0.7461,0.7993,0.7890,0.8051,0.7905,0.8053,0.8004,0.8043,0.7881,0.7483,0.7949,0.8013,0.7985,0.8065,0.7947,0.7905,0.7443,0.7951,0.8020,0.8041,0.7999,0.8067,0.8047,0.7825,0.7610,0.7965,0.7946,0.7776,0.8048,0.7984,0.7577,0.8002,0.8012,0.7904,0.7990,0.8048,0.8059,0.7917,0.8026,0.8029,0.8012,0.7969,0.8045,0.7718,0.8042,0.7421,0.7988,0.7894,0.7714,0.7819,0.8029,0.8004,0.8043,0.7921,0.8012,0.8047,0.8058,0.7863,0.8004,0.7827,0.8009,0.7998,0.8009
250,0.7932,0.7842,0.8003,0.8000,0.8045,0.7939,0.7829,0.7825,0.7994,0.7912,0.8047,0.7916,0.8028,0.8054,0.8004,0.8013,0.8042,0.7991,0.7828,0.7872,0.7925,0.7878,0.8016,0.7999,0.8051,0.7386,0.8017,0.7905,0.7834,0.8007,0.8052,0.7298,0.7864,0.8023,0.7845,0.7702,0.7836,0.7392,0.7930,0.7936,0.7735,0.7840,0.7990,0.8006,0.7893,0.7879,0.7393,0.7884,0.8040,0.7957,0.8040,0.8059,0.7840,0.7842,0.7935,0.8028,0.8019,0.7992,0.8070,0.7876,0.7518,0.7623,0.7825,0.7880,0.7720,0.8040,0.8041,0.7535,0.8021,0.8031,0.7840,0.7895,0.8054,0.8068,0.7839,0.8044,0.8041,0.8047,0.7911,0.8045,0.7702,0.8037,0.7403,0.7982,0.7800,0.7546,0.7837,0.8001,0.7848,0.7465,0.7949,0.7959,0.8041,0.8011,0.7829,0.7820,0.7957,0.8012,0.7990,0.8031
